ncols        68
nrows        63
xllcorner    524330.000000000000
yllcorner    5041050.000000000000
cellsize     4.000000000000
NODATA_value  -3.4028234663852885981e+38
 28.558000564575195312 26.94300079345703125 26.843000411987304688 26.784999847412109375 26.52700042724609375 26.704999923706054688 51.71099853515625 51.758998870849609375 51.76399993896484375 26.739999771118164062 51.7089996337890625 51.71099853515625 51.631000518798828125 26.283000946044921875 65.18399810791015625 64.89099884033203125 64.5780029296875 64.45099639892578125 64.3079986572265625 64.35199737548828125 25.0970001220703125 24.673999786376953125 24.507999420166015625 24.392999649047851562 24.132999420166015625 23.260000228881835938 18.094999313354492188 17.704999923706054688 17.489999771118164062 17.016000747680664062 16.315000534057617188 16.129999160766601562 15.871999740600585938 15.890999794006347656 15.661000251770019531 15.314999580383300781 15.130999565124511719 16.591999053955078125 16.566999435424804688 16.492000579833984375 22.891000747680664062 22.565999984741210938 22.547000885009765625 22.468000411987304688 22.44499969482421875 22.468999862670898438 22.327999114990234375 22.267000198364257812 22.184999465942382812 22.1399993896484375 22.135999679565429688 22.163000106811523438 31.038000106811523438 39.523998260498046875 39.04000091552734375 38.555999755859375 38.173999786376953125 38.09400177001953125 38.0149993896484375 37.939998626708984375 20.0839996337890625 19.863000869750976562 19.844999313354492188 19.733999252319335938 19.649999618530273438 43.604999542236328125 43.536998748779296875 43.366001129150390625
 29.225000381469726562 27.0709991455078125 26.944000244140625 26.892999649047851562 26.705999374389648438 26.743000030517578125 51.659999847412109375 51.76200103759765625 51.8600006103515625 26.9029998779296875 51.88800048828125 51.86199951171875 52.051998138427734375 26.632999420166015625 65.36100006103515625 65.01399993896484375 64.6699981689453125 64.4929962158203125 64.3820037841796875 44.826999664306640625 25.243000030517578125 24.784000396728515625 24.61199951171875 24.447999954223632812 24.120000839233398438 23.62599945068359375 18.363000869750976562 17.982999801635742188 17.662000656127929688 17.115999221801757812 16.36100006103515625 16.186000823974609375 15.909000396728515625 15.911999702453613281 15.701999664306640625 15.381999969482421875 15.098999977111816406 16.351999282836914062 16.729999542236328125 16.579000473022460938 22.900999069213867188 22.658000946044921875 22.6399993896484375 22.559999465942382812 22.51300048828125 22.576000213623046875 22.409999847412109375 22.266000747680664062 22.125 22.076999664306640625 22.082000732421875 22.1100006103515625 22.13899993896484375 39.436000823974609375 38.966999053955078125 38.483001708984375 38.049999237060546875 37.957000732421875 37.880001068115234375 37.842998504638671875 20.033000946044921875 19.802999496459960938 19.783000946044921875 19.684999465942382812 19.562999725341796875 43.563999176025390625 43.38800048828125 43.29199981689453125
 28.989000320434570312 27.186000823974609375 27.044000625610351562 26.99900054931640625 26.819000244140625 39.421001434326171875 51.867000579833984375 52.108001708984375 52.395000457763671875 27.19499969482421875 27.079999923706054688 27.0970001220703125 27.243000030517578125 26.76399993896484375 65.41100311279296875 65.0670013427734375 64.74199676513671875 64.54900360107421875 64.4720001220703125 25.301000595092773438 25.315000534057617188 24.86100006103515625 24.673999786376953125 24.524000167846679688 24.091999053955078125 23.9720001220703125 18.674999237060546875 18.267000198364257812 17.253000259399414062 17.322000503540039062 16.422000885009765625 16.238000869750976562 15.954000473022460938 15.895999908447265625 15.739999771118164062 15.413000106811523438 15.081000328063964844 16.378999710083007812 16.917999267578125 16.6790008544921875 22.329000473022460938 22.729999542236328125 22.728000640869140625 22.634000778198242188 22.506000518798828125 22.655000686645507812 22.420999526977539062 22.167999267578125 22.010999679565429688 21.941999435424804688 21.978000640869140625 22.04199981689453125 22.11100006103515625 39.41500091552734375 38.838001251220703125 38.408000946044921875 37.94300079345703125 37.819000244140625 37.80899810791015625 37.824001312255859375 19.98600006103515625 19.747999191284179688 19.739000320434570312 19.631999969482421875 19.517999649047851562 43.409000396728515625 43.31600189208984375 43.226001739501953125
 29.23600006103515625 27.27700042724609375 27.155000686645507812 27.114000320434570312 26.944000244140625 33.29399871826171875 27.017999649047851562 39.7350006103515625 39.875 32.4010009765625 37.23799896240234375 37.20800018310546875 32.367000579833984375 26.969999313354492188 65.832000732421875 65.5260009765625 65.15799713134765625 64.625 64.5410003662109375 25.357999801635742188 25.364999771118164062 24.95800018310546875 24.738000869750976562 24.510000228881835938 24.062999725341796875 23.933000564575195312 18.948999404907226562 18.559000015258789062 18.202999114990234375 17.413000106811523438 16.502000808715820312 16.30699920654296875 16.003000259399414062 15.897000312805175781 15.784000396728515625 15.447999954223632812 15.069000244140625 15.975000381469726562 17.12400054931640625 16.794000625610351562 18.180999755859375 22.839000701904296875 22.809999465942382812 22.724000930786132812 22.59799957275390625 22.714000701904296875 22.371000289916992188 22.194000244140625 22.077999114990234375 21.996999740600585938 21.968000411987304688 21.885000228881835938 22.115999221801757812 39.519001007080078125 38.9010009765625 38.270000457763671875 37.82199859619140625 37.754001617431640625 37.773998260498046875 37.713001251220703125 19.898000717163085938 19.686000823974609375 19.642000198364257812 19.577999114990234375 19.45999908447265625 48.38700103759765625 48.283000946044921875 48.19300079345703125
 29.5970001220703125 27.436000823974609375 27.256000518798828125 27.219999313354492188 27.0540008544921875 38.6920013427734375 38.785999298095703125 38.868000030517578125 27.30500030517578125 32.516998291015625 37.542999267578125 37.520000457763671875 30.259000778198242188 27.323999404907226562 66.2819976806640625 66.0579986572265625 46.119998931884765625 45.33499908447265625 45.279998779296875 25.451000213623046875 25.357000350952148438 25.090000152587890625 24.849000930786132812 24.52700042724609375 24.024999618530273438 23.871999740600585938 19.34600067138671875 18.850000381469726562 18.548999786376953125 17.51399993896484375 16.576999664306640625 16.368999481201171875 16.059999465942382812 15.887000083923339844 15.83300018310546875 15.491000175476074219 15.100999832153320312 15.687999725341796875 17.336000442504882812 17.007999420166015625 17.795000076293945312 22.9029998779296875 22.8899993896484375 22.802999496459960938 22.684999465942382812 41.1529998779296875 41.034000396728515625 40.87799835205078125 40.811000823974609375 38.319000244140625 38.351001739501953125 38.1230010986328125 38.082000732421875 39.3899993896484375 38.799999237060546875 38.20999908447265625 37.73400115966796875 37.759998321533203125 37.79399871826171875 37.687000274658203125 19.843999862670898438 19.642999649047851562 19.648000717163085938 19.533000946044921875 19.409999847412109375 48.44100189208984375 48.233001708984375 48.12599945068359375
 29.634000778198242188 27.488000869750976562 27.399000167846679688 27.344999313354492188 27.1529998779296875 27.280000686645507812 54.186000823974609375 54.33499908447265625 27.684000015258789062 27.704999923706054688 27.724000930786132812 42.720001220703125 42.78900146484375 27.5970001220703125 27.719999313354492188 50.271999359130859375 49.644001007080078125 49.578998565673828125 49.391998291015625 48.617000579833984375 25.340000152587890625 25.134000778198242188 24.976999282836914062 24.552999496459960938 23.975999832153320312 23.812999725341796875 19.988000869750976562 19.155000686645507812 18.851999282836914062 17.599000930786132812 16.694000244140625 16.417999267578125 16.107999801635742188 15.850999832153320312 15.880000114440917969 15.529000282287597656 15.142999649047851562 15.243000030517578125 17.572000503540039062 17.240999221801757812 17.311000823974609375 22.948999404907226562 22.955999374389648438 22.875 22.795000076293945312 41.4160003662109375 41.563999176025390625 41.509998321533203125 41.47499847412109375 38.983001708984375 38.576999664306640625 38.448001861572265625 38.050998687744140625 42.032001495361328125 41.44100189208984375 40.854000091552734375 40.4420013427734375 40.422000885009765625 40.298999786376953125 40.2779998779296875 19.795999526977539062 19.579000473022460938 19.58499908447265625 19.465999603271484375 19.44300079345703125 48.351001739501953125 48.25 48.0800018310546875
 29.801000595092773438 27.98600006103515625 27.465999603271484375 27.454000473022460938 27.259000778198242188 27.465999603271484375 54.562999725341796875 54.492000579833984375 41.207000732421875 41.1660003662109375 27.725000381469726562 42.660999298095703125 42.743000030517578125 27.732000350952148438 39.08100128173828125 50.337001800537109375 50.023998260498046875 49.935001373291015625 49.9010009765625 49.118000030517578125 25.413000106811523438 25.24900054931640625 25.106000900268554688 24.662000656127929688 23.91699981689453125 23.738000869750976562 21.077999114990234375 19.462999343872070312 19.173999786376953125 17.83499908447265625 16.801000595092773438 16.478000640869140625 16.16699981689453125 15.864999771118164062 15.930999755859375 15.576000213623046875 15.206999778747558594 15.357000350952148438 17.6959991455078125 17.492000579833984375 17.364999771118164062 23.104999542236328125 23.018999099731445312 22.965999603271484375 22.84600067138671875 41.44100189208984375 42.034999847412109375 42.008998870849609375 42 39.146999359130859375 38.743999481201171875 38.4850006103515625 38.016998291015625 44.673000335693359375 44.08300018310546875 43.51599884033203125 43.18399810791015625 43.1230010986328125 42.962001800537109375 42.837001800537109375 25.489000320434570312 19.52899932861328125 19.5279998779296875 19.423999786376953125 19.232000350952148438 48.22499847412109375 48.16699981689453125 48.062999725341796875
 29.8339996337890625 28.16699981689453125 27.5410003662109375 27.558000564575195312 27.329000473022460938 27.48699951171875 54.437000274658203125 54.516998291015625 54.563999176025390625 54.59600067138671875 27.75 27.72100067138671875 27.684000015258789062 27.659000396728515625 39.0579986572265625 50.47499847412109375 50.38800048828125 50.283000946044921875 50.365001678466796875 49.4290008544921875 25.479000091552734375 25.36100006103515625 25.256999969482421875 25.076000213623046875 23.864000320434570312 23.649000167846679688 21.315000534057617188 19.774999618530273438 19.48600006103515625 18.2089996337890625 16.9720001220703125 16.525999069213867188 16.2220001220703125 15.88899993896484375 15.975999832153320312 15.633999824523925781 15.262999534606933594 15.241000175476074219 17.493999481201171875 17.75099945068359375 17.538000106811523438 22.691999435424804688 23.079000473022460938 23.038999557495117188 22.926000595092773438 32.549999237060546875 42.375 42.157001495361328125 42.05699920654296875 39.25299835205078125 38.912998199462890625 38.451000213623046875 37.981998443603515625 44.685001373291015625 44.095001220703125 43.562000274658203125 43.29399871826171875 43.194000244140625 43.033000946044921875 42.870998382568359375 31.243000030517578125 19.469999313354492188 19.483999252319335938 19.372999191284179688 19.33499908447265625 48.154998779296875 48.047000885009765625 47.965000152587890625
 29.923999786376953125 27.825000762939453125 27.6790008544921875 27.655000686645507812 27.479999542236328125 27.590000152587890625 54.480998992919921875 54.520000457763671875 54.55300140380859375 54.582000732421875 27.747999191284179688 27.75 27.631999969482421875 27.669000625610351562 27.615999221801757812 38.907001495361328125 39.091999053955078125 39.185001373291015625 39.2760009765625 38.93000030517578125 25.670999526977539062 25.54199981689453125 25.406000137329101562 25.51399993896484375 23.784000396728515625 23.548999786376953125 22.593999862670898438 20.1100006103515625 19.81999969482421875 18.879999160766601562 17.218999862670898438 16.58300018310546875 16.295000076293945312 15.942999839782714844 16.018999099731445312 15.694000244140625 15.315999984741210938 15.170000076293945312 16.857000350952148438 18.024999618530273438 17.702999114990234375 19.340000152587890625 23.142000198364257812 23.103000640869140625 22.98699951171875 32.507999420166015625 42.36299896240234375 42.256999969482421875 42.02500152587890625 39.34799957275390625 38.8860015869140625 38.4160003662109375 37.94699859619140625 44.6829986572265625 44.106998443603515625 43.62400054931640625 43.3860015869140625 43.2649993896484375 43.104000091552734375 42.94100189208984375 31.197000503540039062 19.412000656127929688 19.436000823974609375 19.315999984741210938 19.148000717163085938 48.13800048828125 47.96900177001953125 47.86299896240234375
 29.8470001220703125 28.017999649047851562 27.798999786376953125 27.774999618530273438 27.599000930786132812 27.694000244140625 54.5709991455078125 54.578998565673828125 54.578998565673828125 54.589000701904296875 54.532001495361328125 34.3769989013671875 27.576000213623046875 27.497999191284179688 27.469999313354492188 50.185001373291015625 50.33599853515625 50.38700103759765625 50.43399810791015625 50.25 25.740999221801757812 25.631999969482421875 25.534000396728515625 25.63899993896484375 23.704000473022460938 23.43000030517578125 22.697999954223632812 20.396999359130859375 20.125 19.534000396728515625 17.353000640869140625 16.627000808715820312 16.365999221801757812 16.017000198364257812 16.009000778198242188 15.760000228881835938 15.399000167846679688 15.114000320434570312 16.184000015258789062 18.309000015258789062 17.951000213623046875 18.344999313354492188 23.224000930786132812 23.159000396728515625 22.9720001220703125 32.615001678466796875 42.116001129150390625 41.950000762939453125 41.742000579833984375 39.220001220703125 38.851001739501953125 38.381999969482421875 37.911998748779296875 44.66899871826171875 44.13800048828125 43.712001800537109375 43.490001678466796875 43.337001800537109375 43.173999786376953125 42.938999176025390625 31.13800048828125 19.353000640869140625 19.367000579833984375 19.256000518798828125 19.021999359130859375 48.009998321533203125 47.909999847412109375 47.7910003662109375
 29.495000839233398438 28.017999649047851562 27.91699981689453125 27.870000839233398438 27.670000076293945312 27.766000747680664062 54.590999603271484375 54.562999725341796875 54.595001220703125 54.548999786376953125 54.453998565673828125 54.340000152587890625 27.517000198364257812 27.354000091552734375 38.680999755859375 50.03099822998046875 50.050998687744140625 50.074001312255859375 50.03900146484375 49.73400115966796875 25.878999710083007812 25.669000625610351562 25.6529998779296875 25.7779998779296875 23.604999542236328125 23.309999465942382812 22.974000930786132812 20.715000152587890625 20.427000045776367188 20.136999130249023438 17.506999969482421875 16.6660003662109375 16.438999176025390625 16.08499908447265625 16.004999160766601562 15.838000297546386719 15.465000152587890625 15.112000465393066406 15.772999763488769531 18.607000350952148438 18.281999588012695312 18.207000732421875 23.274000167846679688 23.216999053955078125 23.104999542236328125 32.55899810791015625 41.7519989013671875 41.520999908447265625 41.287998199462890625 38.72499847412109375 38.5260009765625 38.2519989013671875 37.8769989013671875 44.62400054931640625 44.1790008544921875 43.810001373291015625 43.5709991455078125 43.407001495361328125 43.18000030517578125 42.84600067138671875 31.04000091552734375 19.280000686645507812 19.327999114990234375 19.233999252319335938 18.981000900268554688 47.99700164794921875 47.83100128173828125 47.69699859619140625
 29.229000091552734375 28.283000946044921875 27.978000640869140625 27.961999893188476562 27.77700042724609375 27.8600006103515625 27.882999420166015625 27.822999954223632812 54.57199859619140625 54.4739990234375 54.393001556396484375 54.279998779296875 27.365999221801757812 27.231000900268554688 38.59799957275390625 49.9010009765625 49.744998931884765625 49.74700164794921875 49.659000396728515625 49.26399993896484375 25.98600006103515625 25.857000350952148438 25.746999740600585938 25.83499908447265625 23.798999786376953125 23.18199920654296875 22.912000656127929688 20.995000839233398438 20.715999603271484375 20.542999267578125 17.670000076293945312 16.74900054931640625 16.5149993896484375 16.174999237060546875 15.949000358581542969 15.91699981689453125 15.538000106811523438 15.16699981689453125 15.701000213623046875 18.40200042724609375 18.613000869750976562 18.375 22.003000259399414062 23.295000076293945312 23.20999908447265625 32.394001007080078125 41.340999603271484375 41.08100128173828125 40.90599822998046875 30.912000656127929688 30.048000335693359375 29.816999435424804688 29.497999191284179688 32.91899871826171875 32.631999969482421875 32.326000213623046875 20.479000091552734375 20.287000656127929688 20.033000946044921875 19.7649993896484375 19.545999526977539062 19.18000030517578125 19.326999664306640625 19.23699951171875 18.962999343872070312 18.79199981689453125 18.739000320434570312 18.593999862670898438
 28.784999847412109375 28.322999954223632812 28.104999542236328125 28.045999526977539062 27.86100006103515625 28.023000717163085938 28.100999832153320312 28.017999649047851562 41.088001251220703125 41 40.924999237060546875 27.448999404907226562 27.22100067138671875 27.080999374389648438 26.982999801635742188 38.227001190185546875 38.118000030517578125 38.021999359130859375 37.898998260498046875 37.7610015869140625 26.06800079345703125 25.878999710083007812 25.8209991455078125 25.885999679565429688 24.426000595092773438 23.048999786376953125 22.77899932861328125 21.26399993896484375 20.992000579833984375 20.86100006103515625 18.145999908447265625 16.9029998779296875 16.590000152587890625 16.25099945068359375 15.942000389099121094 16 15.637000083923339844 15.253000259399414062 15.470999717712402344 17.55699920654296875 18.950000762939453125 18.607999801635742188 19.662000656127929688 23.420999526977539062 23.302999496459960938 23.142999649047851562 23.002000808715820312 22.700000762939453125 22.45800018310546875 22.1959991455078125 21.951000213623046875 21.683000564575195312 21.412000656127929688 21.174999237060546875 20.908000946044921875 20.69499969482421875 20.4290008544921875 20.156999588012695312 20.038000106811523438 19.746000289916992188 19.475000381469726562 19.093999862670898438 19.287000656127929688 19.245000839233398438 19.037000656127929688 18.832000732421875 18.691999435424804688 18.582000732421875
 28.4589996337890625 28.30699920654296875 28.11100006103515625 28.090999603271484375 27.947999954223632812 27.936000823974609375 27.812999725341796875 27.732999801635742188 27.5970001220703125 27.468000411987304688 27.350000381469726562 27.24900054931640625 27.047000885009765625 26.90200042724609375 26.801000595092773438 26.674999237060546875 26.559999465942382812 26.43199920654296875 26.267999649047851562 26.146999359130859375 26.02700042724609375 25.881000518798828125 25.88899993896484375 25.912000656127929688 24.819000244140625 22.899999618530273438 22.617000579833984375 21.521999359130859375 21.27700042724609375 21.159999847412109375 19.197000503540039062 17.004999160766601562 16.65399932861328125 16.323999404907226562 15.973999977111816406 16.075000762939453125 15.7220001220703125 15.338000297546386719 15.284999847412109375 16.479999542236328125 19.27899932861328125 18.951999664306640625 18.919000625610351562 22.771999359130859375 23.437999725341796875 23.297000885009765625 23.1100006103515625 22.863000869750976562 22.632999420166015625 22.385000228881835938 22.120000839233398438 21.863000869750976562 21.591999053955078125 21.340999603271484375 21.08300018310546875 20.822999954223632812 20.551000595092773438 20.229999542236328125 19.909000396728515625 19.631000518798828125 19.073999404907226562 18.950000762939453125 19.216999053955078125 19.229999542236328125 19.077999114990234375 18.920999526977539062 18.757999420166015625 18.643999099731445312
 28.336000442504882812 28.24900054931640625 28.188999176025390625 28.128999710083007812 28.052999496459960938 27.950000762939453125 27.815000534057617188 27.725000381469726562 27.604000091552734375 27.461000442504882812 27.371999740600585938 27.232000350952148438 27.11100006103515625 26.989999771118164062 26.884000778198242188 26.770000457763671875 26.636999130249023438 26.517999649047851562 26.410999298095703125 26.2779998779296875 26.159000396728515625 26.010999679565429688 25.954000473022460938 25.9459991455078125 25.634000778198242188 22.770000457763671875 22.454000473022460938 22.020999908447265625 21.582000732421875 21.4720001220703125 20.322999954223632812 17.354999542236328125 16.697999954223632812 16.410999298095703125 16.05500030517578125 16.127000808715820312 15.809000015258789062 15.437999725341796875 15.175999641418457031 16.58499908447265625 19.629999160766601562 19.322000503540039062 19.09600067138671875 19.481000900268554688 22.658000946044921875 23.364999771118164062 23.167999267578125 22.913999557495117188 22.632999420166015625 22.327999114990234375 22.079999923706054688 21.812000274658203125 21.563999176025390625 21.280000686645507812 21.020999908447265625 20.761999130249023438 20.48699951171875 20.20999908447265625 19.746999740600585938 19.375 18.802000045776367188 18.836000442504882812 19.156000137329101562 19.212999343872070312 18.98600006103515625 18.757999420166015625 18.677000045776367188 18.63800048828125
 28.386999130249023438 28.315999984741210938 28.218000411987304688 28.177000045776367188 28.093000411987304688 27.997999191284179688 27.884000778198242188 27.747999191284179688 27.607000350952148438 27.493000030517578125 27.381000518798828125 27.226999282836914062 27.101999282836914062 26.954000473022460938 26.865999221801757812 26.745000839233398438 26.615999221801757812 26.482999801635742188 26.357999801635742188 26.20999908447265625 26.0970001220703125 25.990999221801757812 25.975999832153320312 25.993000030517578125 26.156000137329101562 22.636999130249023438 22.274000167846679688 22.017000198364257812 21.898000717163085938 21.7649993896484375 21.354000091552734375 17.667999267578125 16.743999481201171875 16.490999221801757812 16.142000198364257812 16.103000640869140625 15.897999763488769531 15.536000251770019531 15.168999671936035156 15.989999771118164062 19.7649993896484375 19.683000564575195312 19.353000640869140625 19.594999313354492188 20.308000564575195312 21.576999664306640625 22.798999786376953125 23.003999710083007812 22.732999801635742188 22.417999267578125 22.146999359130859375 21.898000717163085938 21.621999740600585938 21.288000106811523438 20.924999237060546875 20.680999755859375 20.424999237060546875 20.156000137329101562 19.812999725341796875 19.287000656127929688 18.493999481201171875 18.704999923706054688 19.149999618530273438 19.224000930786132812 18.9160003662109375 34.995998382568359375 34.99700164794921875 34.88899993896484375
 28.351999282836914062 28.243999481201171875 28.20800018310546875 28.076000213623046875 28.01399993896484375 27.917999267578125 27.87599945068359375 27.691999435424804688 27.604999542236328125 27.516000747680664062 27.377000808715820312 27.190000534057617188 27.117000579833984375 27.037000656127929688 26.950000762939453125 26.851999282836914062 26.658000946044921875 26.600000381469726562 26.4290008544921875 26.3470001220703125 26.23699951171875 25.981000900268554688 25.974000930786132812 25.99900054931640625 26.134000778198242188 22.502000808715820312 22.103000640869140625 21.809000015258789062 22.215000152587890625 22.058000564575195312 21.97100067138671875 17.864000320434570312 16.81999969482421875 16.590000152587890625 16.240999221801757812 16.034000396728515625 15.994000434875488281 15.640000343322753906 15.256999969482421875 15.784000396728515625 18.632999420166015625 20.037000656127929688 19.743000030517578125 19.697000503540039062 20.302999496459960938 21.34799957275390625 22.534000396728515625 23.048999786376953125 22.80699920654296875 22.502000808715820312 22.353000640869140625 22.173999786376953125 22.035999298095703125 21.420000076293945312 20.868000030517578125 20.5279998779296875 20.280000686645507812 20.035999298095703125 19.868000030517578125 18.593999862670898438 18.350999832153320312 18.600000381469726562 19.254999160766601562 19.274999618530273438 18.954000473022460938 51.257999420166015625 51.465000152587890625 51.37400054931640625
 28.535999298095703125 51.368999481201171875 28.2779998779296875 28.239999771118164062 28.055999755859375 28.020000457763671875 28.072000503540039062 27.926000595092773438 27.891000747680664062 27.7779998779296875 27.687999725341796875 27.54199981689453125 27.475000381469726562 27.51399993896484375 27.43000030517578125 27.375 44.095001220703125 60.699001312255859375 60.529998779296875 60.286998748779296875 60.174999237060546875 43.14099884033203125 26.009000778198242188 26.052999496459960938 26.114999771118164062 22.56800079345703125 21.922000885009765625 21.565000534057617188 22.51399993896484375 22.336999893188476562 22.2649993896484375 18.37400054931640625 16.98600006103515625 16.670000076293945312 16.332000732421875 16.030000686645507812 16.094999313354492188 15.737999916076660156 15.380000114440917969 15.657999992370605469 17.5149993896484375 20.444000244140625 20.12599945068359375 19.871999740600585938 20.260999679565429688 21.099000930786132812 22.253000259399414062 22.878000259399414062 22.7089996337890625 22.509000778198242188 22.395999908447265625 22.34600067138671875 22.254999160766601562 21.576000213623046875 21.118000030517578125 20.711000442504882812 20.3339996337890625 20.076000213623046875 18.944000244140625 18.059999465942382812 18.232999801635742188 18.48699951171875 19.438999176025390625 19.301000595092773438 19.052000045776367188 19.25099945068359375 19.509000778198242188 51.52500152587890625
 74.5630035400390625 74.40899658203125 28.215999603271484375 28.253999710083007812 28.069000244140625 28.017999649047851562 28.114000320434570312 28.017000198364257812 27.941999435424804688 27.84600067138671875 27.759000778198242188 27.629999160766601562 27.558000564575195312 27.468000411987304688 27.38899993896484375 27.298000335693359375 44.172000885009765625 60.827999114990234375 60.573001861572265625 60.356998443603515625 60.19499969482421875 43.16699981689453125 26.034000396728515625 26.0709991455078125 26.094999313354492188 22.562999725341796875 21.754999160766601562 21.364000320434570312 22.58499908447265625 22.613000869750976562 22.552000045776367188 19.995000839233398438 17.240999221801757812 16.731000900268554688 16.434000015258789062 16.094999313354492188 16.15200042724609375 15.850000381469726562 15.494000434875488281 15.321000099182128906 17.25099945068359375 20.783000946044921875 20.493999481201171875 20.219999313354492188 20.29199981689453125 21.017999649047851562 21.91699981689453125 22.563999176025390625 22.608999252319335938 22.482999801635742188 22.423000335693359375 22.357000350952148438 22.308000564575195312 21.711999893188476562 21.091999053955078125 20.688999176025390625 20.177999496459960938 18.983999252319335938 17.995000839233398438 17.857999801635742188 18.108999252319335938 18.535999298095703125 19.555999755859375 19.3600006103515625 19.143999099731445312 19.29000091552734375 19.47100067138671875 51.608001708984375
 74.628997802734375 74.44300079345703125 28.29000091552734375 28.253000259399414062 28.069000244140625 27.989000320434570312 28.180999755859375 28.0839996337890625 27.965999603271484375 27.886999130249023438 27.739000320434570312 27.635999679565429688 27.518999099731445312 27.454999923706054688 27.371000289916992188 27.327999114990234375 44.162998199462890625 60.875 60.659999847412109375 60.44499969482421875 60.229999542236328125 43.16699981689453125 26.073999404907226562 26.106000900268554688 26.072000503540039062 23.548000335693359375 21.582000732421875 21.170999526977539062 21.895999908447265625 22.886999130249023438 22.830999374389648438 21.684000015258789062 17.729999542236328125 16.770000457763671875 16.517000198364257812 16.18000030517578125 16.13899993896484375 15.956999778747558594 15.61100006103515625 15.27700042724609375 16.172000885009765625 20.059000015258789062 20.878000259399414062 20.617000579833984375 20.393999099731445312 20.910999298095703125 21.618000030517578125 22.29199981689453125 22.4589996337890625 22.489000320434570312 22.408000946044921875 22.368000030517578125 22.351999282836914062 21.95999908447265625 21.06999969482421875 20.628000259399414062 19.461999893188476562 18.18000030517578125 17.545999526977539062 17.729999542236328125 17.988000869750976562 19.06800079345703125 19.601999282836914062 19.447000503540039062 19.26300048828125 19.294000625610351562 19.436000823974609375 51.620998382568359375
 74.74500274658203125 74.496002197265625 28.38899993896484375 28.229999542236328125 28.099000930786132812 28.062000274658203125 28.228000640869140625 28.093000411987304688 28.009000778198242188 27.920999526977539062 27.79199981689453125 27.70800018310546875 27.559000015258789062 27.479000091552734375 27.399000167846679688 27.325000762939453125 44.200000762939453125 60.936000823974609375 60.727001190185546875 60.516998291015625 60.305999755859375 43.21900177001953125 26.08300018310546875 26.141000747680664062 26.08499908447265625 25.378000259399414062 21.424999237060546875 21 21.19499969482421875 23.167999267578125 23.114999771118164062 23 17.885999679565429688 16.830999374389648438 16.607000350952148438 16.275999069213867188 16.122999191284179688 16.05500030517578125 15.720999717712402344 15.369999885559082031 15.779000282287597656 17.875 21.313999176025390625 20.988000869750976562 20.724000930786132812 20.829999923706054688 21.479999542236328125 22.052000045776367188 22.297000885009765625 22.506000518798828125 22.4029998779296875 22.36199951171875 22.31800079345703125 21.576999664306640625 20.969999313354492188 19.941999435424804688 18.739000320434570312 17.54000091552734375 17.385000228881835938 17.601999282836914062 18.006999969482421875 19.207000732421875 19.705999374389648438 19.531999588012695312 19.344999313354492188 19.350999832153320312 19.469999313354492188 51.7050018310546875
 52.050998687744140625 51.574001312255859375 28.29199981689453125 28.267000198364257812 28.09799957275390625 28.062999725341796875 28.2649993896484375 28.143999099731445312 28.062000274658203125 27.979999542236328125 27.90399932861328125 27.787000656127929688 27.659999847412109375 27.562999725341796875 27.47100067138671875 27.368999481201171875 44.201000213623046875 60.935001373291015625 60.717998504638671875 60.51200103759765625 60.328998565673828125 43.254001617431640625 26.1399993896484375 26.173999786376953125 26.117000579833984375 26.024999618530273438 21.294000625610351562 20.829999923706054688 20.590999603271484375 23.461999893188476562 23.393999099731445312 23.312999725341796875 18.864999771118164062 16.997999191284179688 16.694000244140625 16.371999740600585938 16.100999832153320312 16.145000457763671875 15.838000297546386719 15.510000228881835938 15.548999786376953125 16.669000625610351562 21.613000869750976562 21.382999420166015625 21.136999130249023438 20.898000717163085938 21.299999237060546875 21.94300079345703125 22.1790008544921875 22.448999404907226562 22.4290008544921875 22.372999191284179688 22.326000213623046875 21.422000885009765625 20.576000213623046875 19.082000732421875 17.785999298095703125 17.106000900268554688 17.27899932861328125 17.483999252319335938 18.336000442504882812 19.410999298095703125 19.780000686645507812 19.607000350952148438 19.41500091552734375 19.423000335693359375 19.509000778198242188 51.727001190185546875
 75.1230010986328125 74.69000244140625 28.395000457763671875 28.323999404907226562 28.145000457763671875 28.093999862670898438 28.30699920654296875 28.2089996337890625 28.122999191284179688 28.04000091552734375 27.9720001220703125 27.839000701904296875 27.732999801635742188 27.628000259399414062 27.525999069213867188 27.422000885009765625 44.215000152587890625 60.948001861572265625 60.756999969482421875 60.56800079345703125 60.37799835205078125 43.259998321533203125 26.160999298095703125 26.2089996337890625 26.16500091552734375 26.26399993896484375 21.488000869750976562 20.673999786376953125 20.27700042724609375 23.815000534057617188 23.65399932861328125 23.586999893188476562 21.989000320434570312 17.2779998779296875 16.743000030517578125 16.468999862670898438 16.167999267578125 16.188999176025390625 15.956000328063964844 15.626999855041503906 15.427000045776367188 16.47299957275390625 21.093000411987304688 21.787000656127929688 21.493000030517578125 21.240999221801757812 21.27700042724609375 21.781999588012695312 22.170999526977539062 22.405000686645507812 22.479000091552734375 22.377000808715820312 22.280000686645507812 21.548999786376953125 19.72100067138671875 18.229000091552734375 17.104000091552734375 16.97299957275390625 17.129999160766601562 17.533000946044921875 18.615999221801757812 19.590999603271484375 19.851999282836914062 19.660999298095703125 19.475999832153320312 19.4589996337890625 19.530000686645507812 51.733001708984375
 75.12999725341796875 74.6999969482421875 28.400999069213867188 28.301000595092773438 28.225000381469726562 28.118000030517578125 28.350000381469726562 28.242000579833984375 28.142000198364257812 28.052999496459960938 28.0279998779296875 27.8899993896484375 27.781000137329101562 27.704999923706054688 27.621999740600585938 44.410999298095703125 52.707000732421875 60.983001708984375 60.766998291015625 60.550998687744140625 60.340000152587890625 43.299999237060546875 26.186000823974609375 26.253000259399414062 26.204000473022460938 26.242000579833984375 23.84600067138671875 20.510000228881835938 20.082000732421875 23.400999069213867188 23.923999786376953125 23.843000411987304688 23.774999618530273438 17.58499908447265625 16.784999847412109375 16.55500030517578125 16.257999420166015625 16.170999526977539062 16.0540008544921875 15.762999534606933594 15.444000244140625 15.979999542236328125 18.061000823974609375 22.01300048828125 21.879999160766601562 21.617000579833984375 21.368000030517578125 21.672000885009765625 22.118999481201171875 22.357000350952148438 22.493999481201171875 22.420000076293945312 22.127000808715820312 21.072999954223632812 19.368000030517578125 17.43000030517578125 16.746000289916992188 16.84600067138671875 16.988000869750976562 17.781999588012695312 18.950000762939453125 19.729999542236328125 19.885999679565429688 19.73699951171875 19.533000946044921875 36.743999481201171875 54.12599945068359375 54.15599822998046875
 75.24700164794921875 74.93399810791015625 28.464000701904296875 28.40399932861328125 28.283000946044921875 28.117000579833984375 28.339000701904296875 28.284999847412109375 28.228000640869140625 28.100999832153320312 28.090999603271484375 27.95999908447265625 27.863000869750976562 44.6660003662109375 61.590999603271484375 61.457000732421875 61.2519989013671875 61.062999725341796875 60.842998504638671875 60.61299896240234375 60.384998321533203125 43.30899810791015625 26.23600006103515625 26.297000885009765625 26.24900054931640625 26.197000503540039062 24.93199920654296875 20.363000869750976562 19.936000823974609375 21.702999114990234375 24.173999786376953125 24.100000381469726562 24.149000167846679688 17.865999221801757812 16.871999740600585938 16.650999069213867188 16.358999252319335938 16.156000137329101562 16.162000656127929688 15.881999969482421875 15.586000442504882812 15.7089996337890625 16.906999588012695312 22.141000747680664062 22.211000442504882812 21.930999755859375 21.702999114990234375 21.580999374389648438 22.010000228881835938 22.239999771118164062 22.464000701904296875 22.393999099731445312 21.729000091552734375 20.615999221801757812 19.113000869750976562 16.684999465942382812 16.625 16.683000564575195312 16.937999725341796875 17.9850006103515625 19.15399932861328125 19.827999114990234375 19.969999313354492188 19.79000091552734375 19.573999404907226562 36.86299896240234375 54.1790008544921875 54.18000030517578125
 75.11100006103515625 74.79799652099609375 28.517999649047851562 28.395000457763671875 28.323999404907226562 28.173000335693359375 60.80300140380859375 60.838001251220703125 60.7239990234375 60.660999298095703125 60.7760009765625 60.5540008544921875 60.3860015869140625 52.4889984130859375 61.63700103759765625 61.453998565673828125 61.255001068115234375 61.078998565673828125 60.909000396728515625 60.6920013427734375 60.491001129150390625 51.845001220703125 26.273000717163085938 26.343999862670898438 26.298999786376953125 26.201000213623046875 26.295999526977539062 20.2779998779296875 19.792999267578125 20.822000503540039062 24.440999984741210938 24.364000320434570312 24.336000442504882812 19.150999069213867188 17.190000534057617188 16.70999908447265625 16.457000732421875 16.18000030517578125 16.253000259399414062 16.00099945068359375 15.715999603271484375 15.565999984741210938 16.520000457763671875 21.9029998779296875 22.451999664306640625 22.2910003662109375 22.023000717163085938 21.767999649047851562 21.926000595092773438 22.173000335693359375 22.410999298095703125 22.3470001220703125 21.631999969482421875 20.643999099731445312 18.409000396728515625 16.490999221801757812 16.47299957275390625 16.51300048828125 17.160999298095703125 18.475999832153320312 19.410999298095703125 19.978000640869140625 20.030000686645507812 19.83300018310546875 19.648000717163085938 19.700000762939453125 54.227001190185546875 54.242000579833984375
 75.04199981689453125 74.71900177001953125 28.481000900268554688 28.437000274658203125 28.356000900268554688 28.194000244140625 60.83499908447265625 60.784999847412109375 60.729999542236328125 60.65000152587890625 60.713001251220703125 60.52700042724609375 60.354000091552734375 43.98600006103515625 61.59400177001953125 61.457000732421875 61.258998870849609375 61.08100128173828125 60.911998748779296875 60.742000579833984375 60.564998626708984375 60.3470001220703125 26.336000442504882812 26.395000457763671875 26.350999832153320312 26.240999221801757812 26.288999557495117188 20.79000091552734375 19.662000656127929688 19.496999740600585938 24.728000640869140625 24.599000930786132812 24.534000396728515625 21.379999160766601562 17.412000656127929688 16.728000640869140625 16.544000625610351562 16.271999359130859375 16.252000808715820312 16.104000091552734375 15.836000442504882812 15.560000419616699219 16.299999237060546875 19.44300079345703125 22.576000213623046875 22.555999755859375 22.316999435424804688 22.069000244140625 21.885000228881835938 22.142000198364257812 22.322000503540039062 22.2649993896484375 21.634000778198242188 20.781000137329101562 16.523000717163085938 16.326999664306640625 16.271999359130859375 16.478000640869140625 17.649000167846679688 18.6790008544921875 19.68199920654296875 20.093000411987304688 20.104999542236328125 19.853000640869140625 19.7089996337890625 19.705999374389648438 54.279998779296875 54.2949981689453125
 75.03600311279296875 74.7239990234375 28.56800079345703125 28.492000579833984375 28.4029998779296875 28.225000381469726562 60.826999664306640625 60.80500030517578125 60.726001739501953125 60.630001068115234375 60.62799835205078125 60.493999481201171875 60.327999114990234375 43.95999908447265625 61.546001434326171875 61.462001800537109375 61.26300048828125 61.0839996337890625 60.91400146484375 60.743999481201171875 60.575000762939453125 60.4029998779296875 26.372999191284179688 26.419000625610351562 26.381999969482421875 26.273000717163085938 26.149999618530273438 24.16500091552734375 19.55699920654296875 19.132999420166015625 25.030000686645507812 24.825000762939453125 24.759000778198242188 23.961000442504882812 17.687000274658203125 16.768999099731445312 16.6100006103515625 16.36199951171875 16.190000534057617188 16.201000213623046875 15.954000473022460938 15.687000274658203125 16.003999710083007812 17.25099945068359375 22.8040008544921875 22.770000457763671875 22.603000640869140625 22.319000244140625 22.099000930786132812 22.061000823974609375 22.233999252319335938 22.194000244140625 21.698999404907226562 18.27700042724609375 16.243999481201171875 16.149000167846679688 16.121000289916992188 16.673999786376953125 17.799999237060546875 19.033000946044921875 19.905000686645507812 20.146999359130859375 20.167999267578125 19.93199920654296875 19.7779998779296875 19.781000137329101562 54.28900146484375 54.34799957275390625
 75.02700042724609375 74.69499969482421875 28.52899932861328125 28.524999618530273438 28.436000823974609375 28.27899932861328125 60.87200164794921875 60.801998138427734375 60.7050018310546875 60.60900115966796875 60.548000335693359375 60.462001800537109375 60.301998138427734375 43.948001861572265625 61.4980010986328125 61.44499969482421875 61.26599884033203125 61.08599853515625 60.9160003662109375 60.745998382568359375 60.577999114990234375 60.423999786376953125 26.410999298095703125 26.454999923706054688 26.434000015258789062 26.267000198364257812 26.163999557495117188 23.614000320434570312 19.479000091552734375 19.020000457763671875 25.2779998779296875 25.01300048828125 24.947000503540039062 24.996000289916992188 18.410999298095703125 16.993999481201171875 16.677000045776367188 16.451999664306640625 16.218000411987304688 16.280000686645507812 16.066999435424804688 15.826999664306640625 15.748999595642089844 16.58499908447265625 21.843999862670898438 23.003999710083007812 22.868000030517578125 22.572000503540039062 22.315999984741210938 22.121000289916992188 22.201000213623046875 22.197999954223632812 21.930999755859375 16.295000076293945312 16.062000274658203125 15.930999755859375 16.01399993896484375 18.468000411987304688 18.836000442504882812 19.4459991455078125 20.061000823974609375 20.243999481201171875 20.225000381469726562 19.989999771118164062 19.870000839233398438 19.857999801635742188 54.3730010986328125 54.369998931884765625
 75.04399871826171875 74.72899627685546875 28.559000015258789062 28.531999588012695312 28.454000473022460938 28.242000579833984375 60.875 60.78099822998046875 60.68399810791015625 60.587001800537109375 60.49700164794921875 60.426998138427734375 60.2779998779296875 43.930999755859375 61.452999114990234375 61.410999298095703125 61.271999359130859375 61.089000701904296875 60.91899871826171875 60.74900054931640625 60.562999725341796875 60.436000823974609375 26.41699981689453125 26.49900054931640625 26.658000946044921875 26.339000701904296875 26.146999359130859375 25.996999740600585938 24.913000106811523438 25.608999252319335938 25.559000015258789062 25.177999496459960938 25.106000900268554688 25.125 21.037000656127929688 17.30699920654296875 16.702999114990234375 16.524999618530273438 16.305999755859375 16.311000823974609375 16.159000396728515625 15.935000419616699219 15.734000205993652344 16.294000625610351562 19.688999176025390625 23.20800018310546875 23.077999114990234375 22.87400054931640625 22.479999542236328125 22.315000534057617188 22.13899993896484375 22.254999160766601562 19.392999649047851562 16.069000244140625 15.890999794006347656 15.7910003662109375 17.09799957275390625 19.704999923706054688 19.746000289916992188 20.091999053955078125 20.30699920654296875 20.368999481201171875 20.27899932861328125 20.06999969482421875 19.951000213623046875 19.906999588012695312 54.50099945068359375 54.448001861572265625
 75.082000732421875 74.8079986572265625 28.607999801635742188 28.565000534057617188 28.490999221801757812 28.268999099731445312 60.86299896240234375 60.811000823974609375 60.66400146484375 60.56600189208984375 60.470001220703125 60.393001556396484375 60.254001617431640625 43.910999298095703125 61.408000946044921875 61.37400054931640625 61.269001007080078125 61.090000152587890625 60.921001434326171875 60.729000091552734375 60.5709991455078125 60.49700164794921875 26.524000167846679688 26.531000137329101562 26.711000442504882812 26.58300018310546875 26.183000564575195312 26.062000274658203125 25.975999832153320312 25.947000503540039062 25.788000106811523438 25.319000244140625 25.232999801635742188 25.159000396728515625 24.160999298095703125 17.601999282836914062 16.725000381469726562 16.600999832153320312 16.391000747680664062 16.254999160766601562 16.24900054931640625 16.037000656127929688 15.83300018310546875 15.979000091552734375 17.190000534057617188 22.506999969482421875 22.919000625610351562 23.003999710083007812 22.627000808715820312 22.427999496459960938 22.257999420166015625 21.950000762939453125 16.40399932861328125 15.878000259399414062 15.682999610900878906 15.814999580383300781 20.951000213623046875 20.940000534057617188 20.7649993896484375 20.714000701904296875 20.6660003662109375 20.562999725341796875 20.229999542236328125 20.146999359130859375 20.042999267578125 20.010000228881835938 54.657001495361328125 54.62200164794921875
 75.12999725341796875 74.9199981689453125 28.711999893188476562 28.604000091552734375 28.525999069213867188 28.325000762939453125 60.88800048828125 60.91699981689453125 60.743999481201171875 60.55699920654296875 60.449001312255859375 60.36199951171875 60.230998992919921875 43.88800048828125 61.370998382568359375 61.33599853515625 61.243000030517578125 61.092998504638671875 60.904998779296875 60.712001800537109375 60.6510009765625 60.58300018310546875 26.538999557495117188 26.575000762939453125 26.770999908447265625 26.76300048828125 26.327999114990234375 26.034999847412109375 25.940000534057617188 25.875 25.76399993896484375 25.454000473022460938 25.33300018310546875 25.160999298095703125 25.099000930786132812 17.895000457763671875 16.900999069213867188 16.646999359130859375 16.437999725341796875 16.274999618530273438 16.329000473022460938 16.132999420166015625 15.932000160217285156 15.857999801635742188 16.565999984741210938 18.08300018310546875 20.576999664306640625 22.843999862670898438 22.631000518798828125 22.502000808715820312 22.336000442504882812 21.031000137329101562 18.215999603271484375 16.687000274658203125 16.59600067138671875 18.385000228881835938 21.464000701904296875 21.23600006103515625 21.030000686645507812 20.878999710083007812 20.673999786376953125 20.495000839233398438 20.254999160766601562 20.20999908447265625 20.13800048828125 20.011999130249023438 20.099000930786132812 20.031999588012695312
 29.136999130249023438 29.049999237060546875 28.802000045776367188 28.68000030517578125 28.587999343872070312 28.40399932861328125 52.7760009765625 60.91899871826171875 60.884998321533203125 60.631999969482421875 60.4329986572265625 60.33599853515625 43.95600128173828125 35.70999908447265625 44.4010009765625 44.298000335693359375 35.717998504638671875 27.120000839233398438 26.979999542236328125 26.90399932861328125 26.787000656127929688 26.68199920654296875 26.462999343872070312 26.5709991455078125 26.687000274658203125 26.760999679565429688 26.524999618530273438 26.11199951171875 25.944000244140625 25.8209991455078125 25.704999923706054688 25.576999664306640625 25.409000396728515625 25.239999771118164062 25.29000091552734375 21.811000823974609375 19.187000274658203125 17.86199951171875 16.545000076293945312 16.349000930786132812 16.34600067138671875 16.212999343872070312 16.051000595092773438 15.918999671936035156 16.302999496459960938 17.399999618530273438 19.7089996337890625 21.843999862670898438 22.332000732421875 22.1529998779296875 21.781000137329101562 21.882999420166015625 20.715000152587890625 19.24900054931640625 19.353000640869140625 21.447999954223632812 21.288999557495117188 21.090999603271484375 20.913999557495117188 20.77700042724609375 20.62400054931640625 20.465000152587890625 20.325000762939453125 20.274000167846679688 20.232999801635742188 20.146999359130859375 20.113000869750976562 20.031999588012695312
 29.0410003662109375 28.91500091552734375 28.788000106811523438 28.698999404907226562 28.586999893188476562 28.444000244140625 28.337999343872070312 28.26300048828125 28.117000579833984375 27.948999404907226562 27.811000823974609375 27.715000152587890625 27.586000442504882812 27.520999908447265625 27.372999191284179688 27.246000289916992188 27.128999710083007812 27.011999130249023438 26.895000457763671875 26.767999649047851562 26.662000656127929688 26.575000762939453125 26.545999526977539062 26.580999374389648438 26.799999237060546875 26.646999359130859375 26.386999130249023438 26.20800018310546875 26.016000747680664062 25.868999481201171875 25.74900054931640625 25.614999771118164062 25.45999908447265625 25.302999496459960938 25.190000534057617188 24.312999725341796875 21.478000640869140625 18.547000885009765625 16.58300018310546875 16.423999786376953125 16.34799957275390625 16.246999740600585938 16.145000457763671875 16.00099945068359375 16.090000152587890625 16.88800048828125 19.0540008544921875 20.752000808715820312 20.988000869750976562 20.601999282836914062 19.832000732421875 20.174999237060546875 21.180999755859375 21.659000396728515625 20.864000320434570312 21.537000656127929688 21.325000762939453125 21.136999130249023438 20.97100067138671875 20.815000534057617188 20.655000686645507812 20.49900054931640625 20.365999221801757812 20.298999786376953125 20.23699951171875 20.172000885009765625 20.104000091552734375 20.030000686645507812
 29.003000259399414062 28.886999130249023438 28.76300048828125 28.6959991455078125 28.614000320434570312 28.52899932861328125 28.385000228881835938 28.288000106811523438 28.135000228881835938 28.04000091552734375 27.875 27.802000045776367188 27.704000473022460938 27.593999862670898438 27.479000091552734375 27.364999771118164062 27.23600006103515625 27.120000839233398438 26.989000320434570312 26.8600006103515625 26.711999893188476562 26.617000579833984375 26.573999404907226562 26.537000656127929688 26.518999099731445312 26.356000900268554688 26.225000381469726562 26.117000579833984375 26.007999420166015625 25.867000579833984375 25.739000320434570312 25.617000579833984375 25.475999832153320312 25.319000244140625 25.163999557495117188 24.95800018310546875 22.43199920654296875 19.118000030517578125 16.607999801635742188 16.495000839233398438 16.358999252319335938 16.2910003662109375 16.240999221801757812 16.08300018310546875 16.0149993896484375 16.575000762939453125 18.247999191284179688 19.56800079345703125 19.62400054931640625 19.061000823974609375 17.982000350952148438 18.016000747680664062 19.020999908447265625 20.0279998779296875 21.430999755859375 21.493999481201171875 21.281000137329101562 21.086000442504882812 20.908000946044921875 20.743000030517578125 20.589000701904296875 20.454000473022460938 20.343999862670898438 20.271999359130859375 20.180999755859375 20.0279998779296875 20.038999557495117188 19.997999191284179688
 29.003999710083007812 28.881000518798828125 28.76300048828125 28.700000762939453125 28.620000839233398438 28.496000289916992188 28.364999771118164062 28.256999969482421875 28.087999343872070312 27.966999053955078125 27.853000640869140625 27.756000518798828125 27.628999710083007812 27.492000579833984375 27.343000411987304688 27.243000030517578125 27.107000350952148438 26.969999313354492188 26.829000473022460938 26.6790008544921875 26.562000274658203125 26.420999526977539062 26.40200042724609375 26.409000396728515625 26.34799957275390625 26.205999374389648438 26.093000411987304688 26.00099945068359375 25.891000747680664062 25.77899932861328125 25.650999069213867188 25.535999298095703125 25.420999526977539062 25.26399993896484375 25.118999481201171875 24.947000503540039062 22.766000747680664062 19.379999160766601562 16.753000259399414062 16.55699920654296875 16.4029998779296875 16.351999282836914062 16.322999954223632812 16.16699981689453125 16.021999359130859375 16.299999237060546875 17.135999679565429688 18.106000900268554688 18.229999542236328125 17.718999862670898438 16.419000625610351562 15.982000350952148438 17.135999679565429688 19.27899932861328125 21.627000808715820312 21.405000686645507812 21.395999908447265625 21.576000213623046875 21.385000228881835938 21.145000457763671875 21.114999771118164062 21.01300048828125 20.496000289916992188 20.301000595092773438 20.156000137329101562 70.75 70.88800048828125 70.88899993896484375
 28.843000411987304688 28.725000381469726562 28.576999664306640625 28.558000564575195312 28.524000167846679688 28.37599945068359375 28.2910003662109375 28.226999282836914062 28.150999069213867188 28.017999649047851562 27.891000747680664062 27.725999832153320312 27.576999664306640625 27.455999374389648438 27.375 27.233999252319335938 27.079999923706054688 26.9720001220703125 26.8470001220703125 39.94699859619140625 39.83499908447265625 39.720001220703125 26.284000396728515625 26.218999862670898438 26.194000244140625 26 49.923999786376953125 50.018001556396484375 49.949001312255859375 25.891000747680664062 25.773000717163085938 25.455999374389648438 25.311000823974609375 25.176000595092773438 25.034000396728515625 24.885000228881835938 22.900999069213867188 17.75099945068359375 16.631999969482421875 16.580999374389648438 16.454000473022460938 16.3600006103515625 16.368999481201171875 16.24900054931640625 16.121000289916992188 16.1100006103515625 17.101999282836914062 17.409000396728515625 17.687000274658203125 17.493000030517578125 16.082000732421875 15.673999786376953125 15.29199981689453125 19.336000442504882812 21.565000534057617188 21.370000839233398438 21.3040008544921875 21.83300018310546875 21.673000335693359375 21.5279998779296875 21.364000320434570312 21.242000579833984375 20.913000106811523438 20.386999130249023438 20.23600006103515625 45.479999542236328125 70.9329986572265625 70.9589996337890625
 28.774000167846679688 28.69300079345703125 28.606000900268554688 28.406999588012695312 28.4160003662109375 28.266000747680664062 28.332000732421875 28.301000595092773438 28.174999237060546875 28.107999801635742188 27.785999298095703125 27.742000579833984375 27.575000762939453125 27.496999740600585938 53.930999755859375 53.827999114990234375 53.741001129150390625 53.465999603271484375 53.27700042724609375 53.13800048828125 52.97299957275390625 52.8079986572265625 26.146999359130859375 26.038000106811523438 26.003999710083007812 25.829000473022460938 73.76399993896484375 73.64099884033203125 73.3130035400390625 25.43199920654296875 25.507999420166015625 25.517999649047851562 25.20800018310546875 25.065000534057617188 24.937999725341796875 24.784999847412109375 24.391000747680664062 17.787000656127929688 16.822000503540039062 16.562999725341796875 16.503999710083007812 16.364999771118164062 16.413999557495117188 16.305999755859375 16.198999404907226562 16.0410003662109375 16.555999755859375 17.155000686645507812 17.372999191284179688 17.26399993896484375 16.017999649047851562 15.623999595642089844 15.272999763488769531 16.38899993896484375 21.502000808715820312 21.3470001220703125 21.163999557495117188 21.302999496459960938 21.7350006103515625 21.660999298095703125 21.399999618530273438 21.271999359130859375 20.98600006103515625 20.448999404907226562 20.33300018310546875 45.616001129150390625 71.04399871826171875 71.05699920654296875
 28.565999984741210938 28.45800018310546875 28.354999542236328125 28.187000274658203125 28.158000946044921875 28.05500030517578125 28.1529998779296875 28.011999130249023438 27.923000335693359375 27.836000442504882812 27.787000656127929688 27.606000900268554688 27.531999588012695312 27.531999588012695312 53.98400115966796875 53.783000946044921875 53.465000152587890625 53.16699981689453125 53.02700042724609375 52.880001068115234375 52.757999420166015625 52.576000213623046875 25.962999343872070312 25.822000503540039062 25.80500030517578125 25.551000595092773438 73.5619964599609375 73.1869964599609375 72.79599761962890625 24.636999130249023438 24.798999786376953125 25.256999969482421875 25.131000518798828125 24.913999557495117188 24.781000137329101562 24.63800048828125 24.746999740600585938 19.614000320434570312 17.121000289916992188 16.52899932861328125 16.525999069213867188 16.4290008544921875 16.410999298095703125 16.364000320434570312 16.270999908447265625 16.136999130249023438 16.267999649047851562 16.774000167846679688 17.177000045776367188 16.940000534057617188 15.998000144958496094 15.595000267028808594 15.340999603271484375 16.892999649047851562 18.636999130249023438 21.343000411987304688 21.190000534057617188 21.0839996337890625 21.350000381469726562 21.6959991455078125 21.5149993896484375 21.372999191284179688 21.150999069213867188 20.548000335693359375 20.451000213623046875 45.733001708984375 71.16400146484375 71.1999969482421875
 28.412000656127929688 28.268999099731445312 28.059999465942382812 27.9160003662109375 27.978000640869140625 27.77899932861328125 27.837999343872070312 27.770999908447265625 27.70800018310546875 27.684999465942382812 40.995998382568359375 54.116001129150390625 54.133998870849609375 54.078998565673828125 53.79199981689453125 53.48699951171875 53.167999267578125 52.868000030517578125 52.772998809814453125 52.62599945068359375 52.479999542236328125 52.370998382568359375 25.7779998779296875 25.663999557495117188 25.594999313354492188 25.38800048828125 73.371002197265625 72.8430023193359375 72.30899810791015625 24.033000946044921875 24.287000656127929688 24.753999710083007812 25.08499908447265625 24.761999130249023438 24.625 24.50099945068359375 24.608999252319335938 24.086000442504882812 17.535999298095703125 16.56800079345703125 16.551000595092773438 16.47299957275390625 16.386999130249023438 16.41500091552734375 16.332000732421875 16.24900054931640625 16.100000381469726562 16.766000747680664062 16.947000503540039062 16.691999435424804688 15.994000434875488281 15.602999687194824219 15.392999649047851562 17.47299957275390625 19.08300018310546875 20.375 21.215000152587890625 21.142999649047851562 21.08300018310546875 21.510000228881835938 21.670999526977539062 21.344999313354492188 21.274999618530273438 20.655000686645507812 20.579999923706054688 45.904998779296875 71.292999267578125 71.28600311279296875
 28.1529998779296875 28.017999649047851562 27.839000701904296875 27.702999114990234375 27.714000701904296875 27.622999191284179688 27.63800048828125 27.538000106811523438 27.468000411987304688 27.475999832153320312 40.90399932861328125 54.1529998779296875 54.24900054931640625 54.0970001220703125 53.546001434326171875 53.188999176025390625 52.869998931884765625 52.56999969482421875 52.519001007080078125 52.3730010986328125 52.226001739501953125 52.108001708984375 25.575000762939453125 25.489999771118164062 25.434000015258789062 25.34799957275390625 73.15899658203125 72.48000335693359375 71.81400299072265625 23.41699981689453125 23.628000259399414062 24.2220001220703125 24.775999069213867188 24.615999221801757812 24.455999374389648438 24.33300018310546875 24.464000701904296875 24.427999496459960938 17.802999496459960938 16.822999954223632812 16.545000076293945312 16.5 16.412000656127929688 16.4459991455078125 16.381000518798828125 16.315999984741210938 16.150999069213867188 16.448999404907226562 16.77700042724609375 16.552999496459960938 16.010999679565429688 15.626000404357910156 15.630000114440917969 18.127000808715820312 19.591999053955078125 20.707000732421875 21.270999908447265625 21.159999847412109375 21.1660003662109375 21.135999679565429688 21.577999114990234375 21.5839996337890625 21.427999496459960938 20.79199981689453125 20.677000045776367188 45.9420013427734375 71.3769989013671875 71.4120025634765625
 27.91500091552734375 27.733999252319335938 27.579000473022460938 27.427999496459960938 27.475000381469726562 27.30500030517578125 27.305999755859375 27.301000595092773438 27.254999160766601562 27.218000411987304688 40.729999542236328125 54.1139984130859375 54.2519989013671875 54.087001800537109375 53.505001068115234375 52.812999725341796875 52.574001312255859375 52.285999298095703125 52.2649993896484375 52.118999481201171875 51.990001678466796875 51.9980010986328125 25.398000717163085938 25.29000091552734375 25.231000900268554688 25.059999465942382812 49.089000701904296875 72.25499725341796875 71.483001708984375 22.905000686645507812 23.226999282836914062 23.843999862670898438 24.379999160766601562 24.48600006103515625 24.267000198364257812 24.148000717163085938 24.256000518798828125 24.372999191284179688 20.961000442504882812 17.188999176025390625 16.506000518798828125 16.531999588012695312 16.45800018310546875 16.466999053955078125 16.424999237060546875 16.340000152587890625 16.27899932861328125 16.253000259399414062 16.7350006103515625 16.47299957275390625 16.045000076293945312 15.66699981689453125 15.642000198364257812 18.281000137329101562 19.923000335693359375 21.089000701904296875 21.504999160766601562 21.194000244140625 21.155000686645507812 21.170000076293945312 21.228000640869140625 21.76300048828125 21.576999664306640625 20.83499908447265625 20.781999588012695312 46.0260009765625 71.46700286865234375 71.490997314453125
 27.673000335693359375 27.45999908447265625 27.315000534057617188 27.159000396728515625 27.226999282836914062 27.049999237060546875 27.05699920654296875 27.024999618530273438 26.961000442504882812 26.944000244140625 40.506999969482421875 54.087001800537109375 54.240001678466796875 54.07199859619140625 53.479999542236328125 52.34400177001953125 52.27899932861328125 52.00099945068359375 52.0110015869140625 51.880001068115234375 51.909999847412109375 51.81999969482421875 25.20800018310546875 25.099000930786132812 25.08499908447265625 24.995000839233398438 48.979999542236328125 72.01300048828125 71.102996826171875 46.285999298095703125 22.878999710083007812 23.55699920654296875 24.131000518798828125 24.322000503540039062 24.072000503540039062 23.937000274658203125 23.9850006103515625 24.368999481201171875 23.700000762939453125 17.5149993896484375 16.576000213623046875 16.52700042724609375 16.503999710083007812 16.457000732421875 16.4720001220703125 16.437999725341796875 16.38899993896484375 16.247999191284179688 16.66699981689453125 16.51300048828125 16.12400054931640625 15.767000198364257812 15.878999710083007812 18.163000106811523438 20.142999649047851562 21.332000732421875 22.004999160766601562 21.489999771118164062 21.159000396728515625 21.174999237060546875 21.176000595092773438 21.391000747680664062 21.656000137329101562 20.964000701904296875 20.923000335693359375 80.8300018310546875 80.8860015869140625 80.9219970703125
 27.444000244140625 27.184000015258789062 27.04000091552734375 26.93000030517578125 26.976999282836914062 26.770000457763671875 26.840999603271484375 26.770999908447265625 26.670999526977539062 26.677000045776367188 33.783000946044921875 40.75099945068359375 40.937999725341796875 27.549999237060546875 53.452999114990234375 52.07199859619140625 51.8470001220703125 51.730998992919921875 51.76200103759765625 51.814998626708984375 51.699001312255859375 51.590999603271484375 25.010000228881835938 24.930999755859375 24.871000289916992188 24.714000701904296875 48.80300140380859375 71.772003173828125 70.7050018310546875 45.768001556396484375 22.311000823974609375 23.37599945068359375 23.836000442504882812 24.125 23.854000091552734375 23.729000091552734375 23.6959991455078125 24.135999679565429688 24.19499969482421875 18.773000717163085938 16.927000045776367188 16.474000930786132812 16.506999969482421875 16.474000930786132812 16.497999191284179688 16.455999374389648438 16.427999496459960938 16.341999053955078125 16.49900054931640625 16.586000442504882812 16.191999435424804688 15.86100006103515625 15.965999603271484375 18.257999420166015625 20.115999221801757812 21.367000579833984375 21.86199951171875 21.746000289916992188 21.3339996337890625 21.148000717163085938 21.170000076293945312 21.229999542236328125 21.684999465942382812 21.225999832153320312 21.0279998779296875 80.93000030517578125 80.98600006103515625 81.0059967041015625
 27.302999496459960938 26.9290008544921875 26.7910003662109375 26.670999526977539062 26.716999053955078125 26.54000091552734375 26.56999969482421875 26.464000701904296875 26.378000259399414062 26.322000503540039062 33.96900177001953125 33.853000640869140625 33.671001434326171875 25.90399932861328125 25.1399993896484375 24.975000381469726562 24.899999618530273438 24.97100067138671875 25.170000076293945312 25.1399993896484375 25.004999160766601562 24.920000076293945312 24.826999664306640625 24.731000900268554688 24.719999313354492188 24.621999740600585938 48.45999908447265625 71.35199737548828125 70.26599884033203125 45.3170013427734375 21.93199920654296875 23.20800018310546875 23.579000473022460938 23.870000839233398438 23.6529998779296875 23.524999618530273438 23.448999404907226562 23.892999649047851562 24.184999465942382812 21.521999359130859375 17.25 16.43199920654296875 16.510999679565429688 16.479000091552734375 16.489000320434570312 16.489999771118164062 16.448999404907226562 16.440999984741210938 16.365999221801757812 16.6399993896484375 16.2910003662109375 15.977000236511230469 16.136999130249023438 17.802999496459960938 19.812999725341796875 21.051000595092773438 21.785999298095703125 21.91699981689453125 21.593000411987304688 21.2779998779296875 21.13899993896484375 21.246000289916992188 21.312000274658203125 21.400999069213867188 21.100000381469726562 50.923999786376953125 81.02300262451171875 81.167999267578125
 49.421001434326171875 49.54000091552734375 37.894001007080078125 26.406999588012695312 26.44499969482421875 26.280000686645507812 26.302999496459960938 26.202999114990234375 26.044000625610351562 25.940999984741210938 40.851001739501953125 40.86199951171875 40.369998931884765625 24.885999679565429688 24.408000946044921875 24.627000808715820312 24.7649993896484375 24.832000732421875 24.9160003662109375 24.86100006103515625 24.812000274658203125 24.726999282836914062 24.641000747680664062 24.538000106811523438 24.531999588012695312 24.4029998779296875 48.29000091552734375 71.233001708984375 70.18499755859375 45.27899932861328125 21.688999176025390625 23.045999526977539062 23.292999267578125 23.656000137329101562 23.474000930786132812 23.336999893188476562 23.275999069213867188 23.672000885009765625 23.993000030517578125 23.906000137329101562 17.5 16.591999053955078125 16.48600006103515625 16.489000320434570312 16.474000930786132812 16.516000747680664062 16.48699951171875 16.488000869750976562 16.408000946044921875 16.620000839233398438 16.375 16.090999603271484375 16.086000442504882812 17.537000656127929688 19.676000595092773438 20.826999664306640625 21.6790008544921875 21.906999588012695312 21.849000930786132812 21.45800018310546875 21.177000045776367188 21.246000289916992188 21.30500030517578125 21.354000091552734375 21.186000823974609375 51.01300048828125 81.07700347900390625 81.21900177001953125
 49.173999786376953125 49.08499908447265625 37.66899871826171875 26.146999359130859375 26.187999725341796875 26.024000167846679688 26.047000885009765625 25.930999755859375 25.781000137329101562 25.5839996337890625 25.349000930786132812 25.131000518798828125 24.934000015258789062 24.77899932861328125 24.538999557495117188 24.549999237060546875 24.607000350952148438 24.622999191284179688 24.701000213623046875 24.645000457763671875 24.563999176025390625 24.5 24.451000213623046875 24.3470001220703125 24.395999908447265625 24.1529998779296875 48.12200164794921875 71.1699981689453125 70.18199920654296875 45.31999969482421875 21.761999130249023438 23 23.12400054931640625 23.4720001220703125 23.357999801635742188 23.18199920654296875 23.117000579833984375 23.368999481201171875 23.8209991455078125 23.867000579833984375 19.02700042724609375 16.930999755859375 16.408000946044921875 16.49900054931640625 16.48699951171875 16.517000198364257812 16.502000808715820312 16.535999298095703125 16.511999130249023438 16.555999755859375 16.4589996337890625 16.2089996337890625 16.155000686645507812 17.02700042724609375 19.636999130249023438 20.767999649047851562 21.655000686645507812 21.93199920654296875 22.15399932861328125 21.745000839233398438 21.363000869750976562 21.275999069213867188 21.3470001220703125 21.327999114990234375 21.24900054931640625 51.16500091552734375 81.352996826171875 81.27899932861328125
 48.90399932861328125 48.83499908447265625 37.375 25.844999313354492188 25.93199920654296875 25.747999191284179688 25.774000167846679688 25.68000030517578125 25.461999893188476562 25.243999481201171875 25.009000778198242188 24.86199951171875 24.656999588012695312 24.520999908447265625 24.489999771118164062 24.468999862670898438 24.483999252319335938 24.364000320434570312 24.51300048828125 24.4720001220703125 24.36100006103515625 24.340999603271484375 24.271999359130859375 24.15200042724609375 24.170999526977539062 24.0839996337890625 47.980998992919921875 71.10500335693359375 70.18399810791015625 45.345001220703125 21.322000503540039062 22.787000656127929688 22.937000274658203125 23.29199981689453125 23.252000808715820312 23.031999588012695312 22.988000869750976562 23.160999298095703125 23.672000885009765625 23.752000808715820312 22.481000900268554688 17.288000106811523438 16.420000076293945312 16.496000289916992188 16.509000778198242188 16.5410003662109375 16.517999649047851562 16.563999176025390625 16.573999404907226562 16.538000106811523438 16.52700042724609375 16.308000564575195312 16.201000213623046875 16.9850006103515625 19.655000686645507812 20.650999069213867188 21.864000320434570312 22.292999267578125 22.25 22 21.753000259399414062 21.378000259399414062 21.44499969482421875 21.423999786376953125 21.337999343872070312 51.189998626708984375 81.44300079345703125 81.54799652099609375
 48.633998870849609375 48.564998626708984375 37.08599853515625 25.6529998779296875 25.6660003662109375 25.510999679565429688 25.464000701904296875 25.398000717163085938 25.159999847412109375 24.961999893188476562 24.739999771118164062 24.6100006103515625 24.447999954223632812 24.368000030517578125 24.400999069213867188 24.40200042724609375 24.364999771118164062 24.298000335693359375 24.326999664306640625 24.316999435424804688 24.201999664306640625 24.190999984741210938 24.089000701904296875 23.982999801635742188 24.003999710083007812 23.91500091552734375 47.7779998779296875 70.9550018310546875 70.09999847412109375 45.40200042724609375 21.826000213623046875 22.952999114990234375 22.811000823974609375 23.197000503540039062 23.108999252319335938 22.909999847412109375 22.905000686645507812 22.940999984741210938 23.252000808715820312 23.492000579833984375 23.600000381469726562 17.645999908447265625 16.650999069213867188 16.434999465942382812 16.503999710083007812 16.5279998779296875 16.549999237060546875 16.558000564575195312 16.590999603271484375 16.600000381469726562 16.572999954223632812 16.424999237060546875 16.246999740600585938 16.964000701904296875 19.313999176025390625 20.475999832153320312 21.878999710083007812 22.413000106811523438 22.4589996337890625 22.330999374389648438 21.93199920654296875 21.580999374389648438 21.599000930786132812 21.547000885009765625 21.468999862670898438 51.375 81.5449981689453125 81.7030029296875
 48.3639984130859375 48.3339996337890625 36.8600006103515625 25.336000442504882812 25.38899993896484375 25.247999191284179688 25.240999221801757812 25.204000473022460938 24.976999282836914062 24.740999221801757812 24.5709991455078125 24.430999755859375 24.313999176025390625 24.254999160766601562 24.298000335693359375 24.295999526977539062 24.229000091552734375 24.141000747680664062 24.201999664306640625 24.128999710083007812 24.017000198364257812 24.024000167846679688 23.909000396728515625 23.795000076293945312 23.844999313354492188 23.72100067138671875 23.688999176025390625 70.87599945068359375 70.2949981689453125 45.978000640869140625 22.816999435424804688 22.891000747680664062 22.802000045776367188 23.13899993896484375 22.941999435424804688 22.88899993896484375 22.863000869750976562 22.832000732421875 23.0839996337890625 23.274000167846679688 23.454000473022460938 19.87400054931640625 17.052000045776367188 16.340000152587890625 16.475000381469726562 16.530000686645507812 16.579000473022460938 16.565999984741210938 16.614999771118164062 16.659999847412109375 16.629999160766601562 16.520000457763671875 16.33499908447265625 16.961000442504882812 18.490999221801757812 20.457000732421875 21.698999404907226562 22.646999359130859375 22.6790008544921875 22.504999160766601562 21.805999755859375 21.746000289916992188 21.732000350952148438 21.62400054931640625 21.628000259399414062 51.606998443603515625 81.72699737548828125 81.80899810791015625
 36.756999969482421875 36.717998504638671875 30.927000045776367188 25.08300018310546875 25.11100006103515625 25.010999679565429688 25.033000946044921875 24.974000930786132812 24.840000152587890625 24.687000274658203125 24.489999771118164062 24.423999786376953125 24.29000091552734375 24.13800048828125 24.20999908447265625 24.1959991455078125 24.100000381469726562 24.048000335693359375 24.033000946044921875 23.937000274658203125 23.841999053955078125 23.857999801635742188 23.729999542236328125 23.625 23.65200042724609375 23.525999069213867188 23.489000320434570312 71.28800201416015625 70.74900054931640625 70.6309967041015625 46.964000701904296875 23.017000198364257812 23.04199981689453125 23.002000808715820312 22.826999664306640625 22.864999771118164062 22.870000839233398438 22.836999893188476562 22.8600006103515625 23.099000930786132812 23.284000396728515625 22.747999191284179688 17.363000869750976562 16.426000595092773438 16.450000762939453125 16.5149993896484375 16.573999404907226562 16.572999954223632812 16.604999542236328125 16.697000503540039062 16.684999465942382812 16.629999160766601562 16.4589996337890625 16.895000457763671875 17.91500091552734375 20.438999176025390625 21.607000350952148438 22.830999374389648438 22.774000167846679688 22.122999191284179688 21.975999832153320312 21.944000244140625 21.87599945068359375 21.767999649047851562 21.754999160766601562 51.716999053955078125 81.9720001220703125 81.97699737548828125
 25.398000717163085938 25.247999191284179688 25.145000457763671875 25.121000289916992188 25.0839996337890625 24.9589996337890625 24.794000625610351562 24.725999832153320312 24.6529998779296875 24.587999343872070312 24.49900054931640625 24.419000625610351562 24.344999313354492188 24.284000396728515625 24.1959991455078125 24.086000442504882812 23.995000839233398438 23.927000045776367188 23.884000778198242188 23.79199981689453125 23.72100067138671875 23.718999862670898438 23.566999435424804688 23.4290008544921875 23.496000289916992188 23.37400054931640625 23.349000930786132812 71.259002685546875 71.17299652099609375 71.082000732421875 47.090000152587890625 23.107999801635742188 23.011999130249023438 22.857000350952148438 22.91699981689453125 22.9459991455078125 22.927999496459960938 22.886999130249023438 22.881999969482421875 22.877000808715820312 22.99900054931640625 23.15200042724609375 17.774000167846679688 16.770999908447265625 16.378000259399414062 16.496000289916992188 16.579000473022460938 16.617000579833984375 16.635000228881835938 16.747999191284179688 16.761999130249023438 16.732000350952148438 16.600999832153320312 16.9160003662109375 18.024999618530273438 20.5279998779296875 21.5839996337890625 22.4029998779296875 22.23699951171875 22.187000274658203125 22.13899993896484375 22.06800079345703125 21.950000762939453125 21.857999801635742188 21.856000900268554688 21.8209991455078125 21.7779998779296875 21.787000656127929688
 25.561000823974609375 25.440999984741210938 25.313999176025390625 25.214000701904296875 25.145999908447265625 25.052000045776367188 24.951000213623046875 24.858999252319335938 24.774999618530273438 24.649000167846679688 24.537000656127929688 24.483999252319335938 24.371000289916992188 24.256999969482421875 24.212999343872070312 24.101999282836914062 24.00099945068359375 23.878999710083007812 23.746999740600585938 23.608999252319335938 23.479999542236328125 23.43199920654296875 23.329999923706054688 23.378999710083007812 23.43000030517578125 23.368000030517578125 23.183000564575195312 23.145999908447265625 23.107999801635742188 23.063999176025390625 23.049999237060546875 22.9850006103515625 22.982999801635742188 23.003999710083007812 23.009000778198242188 22.989000320434570312 22.983999252319335938 22.940000534057617188 22.97299957275390625 22.982000350952148438 22.990999221801757812 22.969999313354492188 21.745000839233398438 18.20999908447265625 16.493000030517578125 16.517000198364257812 16.61100006103515625 16.715000152587890625 16.70999908447265625 16.798000335693359375 16.858999252319335938 16.850000381469726562 16.787000656127929688 16.94300079345703125 18.608999252319335938 21.599000930786132812 22.440999984741210938 22.377000808715820312 22.36199951171875 22.312999725341796875 22.25099945068359375 22.170000076293945312 22.09600067138671875 22.021999359130859375 22.031000137329101562 22.010000228881835938 22.003000259399414062 22.002000808715820312
 25.400999069213867188 25.298999786376953125 25.215999603271484375 25.091999053955078125 25.047000885009765625 24.964000701904296875 24.899999618530273438 24.825000762939453125 24.768999099731445312 24.66699981689453125 24.582000732421875 24.531999588012695312 24.44300079345703125 24.38800048828125 24.31999969482421875 24.232000350952148438 24.141000747680664062 24.017999649047851562 23.919000625610351562 23.788999557495117188 23.68199920654296875 23.5970001220703125 23.509000778198242188 23.461000442504882812 23.444000244140625 23.413999557495117188 23.315000534057617188 23.34799957275390625 23.319000244140625 23.275999069213867188 23.231000900268554688 23.204999923706054688 23.172000885009765625 23.149999618530273438 23.149999618530273438 23.108999252319335938 23.09600067138671875 23.099000930786132812 23.086999893188476562 23.08499908447265625 23.076999664306640625 23.0839996337890625 22.332000732421875 18.656000137329101562 16.718999862670898438 16.479999542236328125 16.586000442504882812 16.690000534057617188 16.747999191284179688 16.795000076293945312 16.891000747680664062 16.930999755859375 16.906999588012695312 16.909999847412109375 18.329000473022460938 21.3470001220703125 22.52700042724609375 22.461999893188476562 22.465999603271484375 22.396999359130859375 22.315999984741210938 22.239999771118164062 22.197000503540039062 22.173999786376953125 22.113000869750976562 22.048999786376953125 22.031999588012695312 22.010000228881835938
 45.904998779296875 25.176000595092773438 25.031999588012695312 24.863000869750976562 24.841999053955078125 24.745000839233398438 24.680999755859375 24.614000320434570312 24.547000885009765625 24.462999343872070312 24.37599945068359375 24.344999313354492188 24.295000076293945312 24.267999649047851562 24.190999984741210938 24.146999359130859375 24.045000076293945312 23.944000244140625 23.856000900268554688 23.733999252319335938 23.645000457763671875 23.566999435424804688 23.49900054931640625 23.468999862670898438 23.440999984741210938 23.461000442504882812 23.447999954223632812 23.44499969482421875 23.441999435424804688 23.423000335693359375 23.393999099731445312 23.364999771118164062 23.305999755859375 23.281000137329101562 23.242000579833984375 23.23600006103515625 23.218000411987304688 23.202999114990234375 23.190000534057617188 23.194000244140625 23.150999069213867188 23.167999267578125 22.239999771118164062 19.0839996337890625 16.920000076293945312 16.497999191284179688 16.559000015258789062 16.6660003662109375 16.770999908447265625 16.795999526977539062 16.917999267578125 17.0149993896484375 17.017999649047851562 16.961000442504882812 18.059000015258789062 20.746999740600585938 22.625 22.636999130249023438 22.523000717163085938 22.427999496459960938 22.371999740600585938 22.3470001220703125 22.256000518798828125 22.172000885009765625 22.094999313354492188 21.965999603271484375 21.927999496459960938 21.913000106811523438
 66.8769989013671875 66.8000030517578125 56.273998260498046875 96.69000244140625 96.63700103759765625 96.5059967041015625 96.3809967041015625 60.495998382568359375 60.439998626708984375 60.3639984130859375 60.282001495361328125 24.343999862670898438 24.229999542236328125 24.197000503540039062 24.104000091552734375 23.983999252319335938 23.899999618530273438 23.81999969482421875 23.70800018310546875 23.552000045776367188 23.399999618530273438 23.323999404907226562 23.294000625610351562 23.243000030517578125 23.243999481201171875 23.312000274658203125 23.358999252319335938 23.399999618530273438 23.417999267578125 23.44300079345703125 23.436000823974609375 23.44300079345703125 23.454999923706054688 23.410999298095703125 23.326000213623046875 23.30699920654296875 23.2649993896484375 23.20999908447265625 23.214000701904296875 23.228000640869140625 23.197999954223632812 17.936000823974609375 17.454000473022460938 16.80500030517578125 17.048999786376953125 16.454999923706054688 16.507999420166015625 16.642000198364257812 16.795999526977539062 16.761999130249023438 16.90200042724609375 17.018999099731445312 17.048000335693359375 17.01300048828125 17.433000564575195312 19.368000030517578125 22.993000030517578125 22.94499969482421875 22.908000946044921875 22.746999740600585938 22.572000503540039062 22.51399993896484375 22.437999725341796875 22.2910003662109375 22.184000015258789062 72.73400115966796875 72.75499725341796875 72.720001220703125
 67.220001220703125 67.15799713134765625 79.28299713134765625 97.08100128173828125 96.99900054931640625 96.86699676513671875 96.76999664306640625 96.68399810791015625 96.56500244140625 96.42600250244140625 96.4029998779296875 96.20600128173828125 96.160003662109375 96.06500244140625 78.0540008544921875 24.059000015258789062 23.940000534057617188 23.823999404907226562 23.688999176025390625 23.438999176025390625 23.475000381469726562 40.464000701904296875 23.479000091552734375 23.405000686645507812 23.253000259399414062 23.146999359130859375 23.04199981689453125 23.143999099731445312 23.225999832153320312 23.31999969482421875 23.3899993896484375 23.468999862670898438 23.604000091552734375 23.620000839233398438 23.6100006103515625 23.614999771118164062 23.496000289916992188 23.37400054931640625 23.327999114990234375 23.38899993896484375 23.451000213623046875 16.44300079345703125 16.090000152587890625 16.198999404907226562 16.704000473022460938 16.55500030517578125 16.438999176025390625 16.603000640869140625 16.746999740600585938 16.767000198364257812 16.891000747680664062 17.023000717163085938 17.077999114990234375 17.089000701904296875 17.27899932861328125 18.8040008544921875 23.202999114990234375 23.372999191284179688 23.299999237060546875 23.080999374389648438 22.8600006103515625 22.854000091552734375 22.745000839233398438 22.559999465942382812 35.186000823974609375 73.10500335693359375 73.07599639892578125 73.0930023193359375
 67.608001708984375 67.5019989013671875 97.5110015869140625 97.464996337890625 97.3639984130859375 97.22100067138671875 97.12799835205078125 97.0469970703125 96.91100311279296875 96.7649993896484375 96.64099884033203125 96.529998779296875 96.44100189208984375 96.29599761962890625 24.658000946044921875 24.316999435424804688 24.155000686645507812 24.020000457763671875 23.857999801635742188 23.6959991455078125 32.131000518798828125 57.5970001220703125 57.56999969482421875 57.423999786376953125 57.33100128173828125 40.23400115966796875 23.246999740600585938 23.1399993896484375 23.047000885009765625 23.086999893188476562 22.93199920654296875 23.0970001220703125 23.261999130249023438 23.368999481201171875 23.49900054931640625 23.618999481201171875 23.58499908447265625 23.503999710083007812 23.492000579833984375 23.614000320434570312 23.19300079345703125 18.305999755859375 16.114999771118164062 16.100999832153320312 16.427999496459960938 16.58300018310546875 16.391000747680664062 16.590000152587890625 16.75 16.83499908447265625 16.872999191284179688 17.020000457763671875 17.155000686645507812 17.1959991455078125 17.267999649047851562 18.204000473022460938 22.40399932861328125 23.73600006103515625 23.641000747680664062 23.430999755859375 23.301000595092773438 23.253000259399414062 23.08300018310546875 22.870000839233398438 73.447998046875 73.447998046875 73.49900054931640625 73.5630035400390625
 67.996002197265625 65.07199859619140625 97.88899993896484375 97.83899688720703125 97.727996826171875 97.57599639892578125 97.48699951171875 97.40799713134765625 97.25800323486328125 97.1060028076171875 96.96900177001953125 96.8690032958984375 96.66500091552734375 60.894001007080078125 24.891000747680664062 24.561000823974609375 24.391000747680664062 24.274000167846679688 24.13899993896484375 24 62.217998504638671875 57.966999053955078125 57.832000732421875 57.6959991455078125 57.532001495361328125 57.42800140380859375 57.323001861572265625 57.298999786376953125 57.29199981689453125 31.349000930786132812 23.260000228881835938 23.059000015258789062 22.893999099731445312 22.997999191284179688 23.011999130249023438 23.257999420166015625 23.476999282836914062 23.511999130249023438 23.5410003662109375 23.72100067138671875 23.295999526977539062 20.367000579833984375 16.385999679565429688 16.075000762939453125 16.233999252319335938 16.673999786376953125 16.434999465942382812 16.561000823974609375 16.745000839233398438 16.912000656127929688 16.843999862670898438 17.072999954223632812 17.20800018310546875 17.288000106811523438 17.311000823974609375 18.233999252319335938 22.409000396728515625 24.160999298095703125 24.0149993896484375 23.7220001220703125 23.715999603271484375 23.614999771118164062 23.395000457763671875 50.141998291015625 76.9759979248046875 62.828998565673828125 73.96900177001953125 74.03299713134765625
 68.37999725341796875 98.3899993896484375 98.2740020751953125 98.2030029296875 98.09200286865234375 97.93399810791015625 97.84600067138671875 97.7570037841796875 97.60500335693359375 97.4530029296875 97.3040008544921875 97.17600250244140625 97.055999755859375 61.120998382568359375 25.107999801635742188 24.840999603271484375 24.705999374389648438 24.542999267578125 24.417999267578125 24.4720001220703125 63.881999969482421875 63.757999420166015625 63.604999542236328125 60.72299957275390625 57.813999176025390625 57.759998321533203125 57.726001739501953125 57.70600128173828125 57.578998565673828125 55.299999237060546875 55.226001739501953125 55.05300140380859375 47.1139984130859375 31.252000808715820312 23.197000503540039062 23.11199951171875 23.169000625610351562 23.3339996337890625 23.427000045776367188 23.625 23.489999771118164062 22.1790008544921875 18.326999664306640625 16.1100006103515625 16.145000457763671875 16.503000259399414062 16.648000717163085938 16.525999069213867188 16.738000869750976562 16.90200042724609375 16.940000534057617188 17.075000762939453125 17.253999710083007812 17.377000808715820312 17.4029998779296875 18.232999801635742188 20.2910003662109375 24.52700042724609375 24.364999771118164062 24.12599945068359375 24.107999801635742188 23.948999404907226562 23.686000823974609375 77.345001220703125 77.37000274658203125 77.40899658203125 77.44000244140625 77.5500030517578125
 68.73999786376953125 98.74199676513671875 98.66100311279296875 98.569000244140625 98.45200347900390625 98.29000091552734375 98.2220001220703125 98.102996826171875 97.95099639892578125 97.79900360107421875 97.647003173828125 97.5110015869140625 97.37799835205078125 25.687000274658203125 25.40200042724609375 25.158000946044921875 25.0149993896484375 24.854000091552734375 24.7220001220703125 44.49700164794921875 64.14600372314453125 64.00299835205078125 63.83599853515625 63.770999908447265625 63.7350006103515625 62.3170013427734375 58.13800048828125 58.078998565673828125 56.200000762939453125 55.56600189208984375 55.590999603271484375 55.423000335693359375 55.29199981689453125 55.268001556396484375 55.082000732421875 54.908000946044921875 23.271999359130859375 23.292999267578125 23.378000259399414062 23.50099945068359375 23.669000625610351562 22.283000946044921875 20.089000701904296875 16.3899993896484375 16.125 16.281000137329101562 16.808000564575195312 16.493000030517578125 16.715000152587890625 16.9160003662109375 17.038000106811523438 17.072999954223632812 17.283000946044921875 17.440000534057617188 17.455999374389648438 17.933000564575195312 19.350999832153320312 24.822999954223632812 24.5839996337890625 24.448999404907226562 24.4290008544921875 24.253000259399414062 24.01399993896484375 77.71900177001953125 77.6999969482421875 77.7180023193359375 77.8119964599609375 77.87000274658203125
 73.85199737548828125 99.121002197265625 99.04199981689453125 98.93599700927734375 98.8000030517578125 98.6490020751953125 98.59799957275390625 98.4499969482421875 98.29799652099609375 98.14600372314453125 97.9940032958984375 97.84100341796875 97.7220001220703125 25.990999221801757812 25.670000076293945312 25.511999130249023438 25.350999832153320312 25.132999420166015625 25.04000091552734375 64.49900054931640625 64.332000732421875 64.2519989013671875 64.214996337890625 64.18000030517578125 64.14499664306640625 64.1100006103515625 64.0879974365234375 63.979000091552734375 55.990001678466796875 55.854999542236328125 55.88700103759765625 55.79000091552734375 55.634998321533203125 55.5989990234375 55.479999542236328125 55.145999908447265625 23.343000411987304688 23.423000335693359375 23.474000930786132812 23.555999755859375 23.704999923706054688 22.520000457763671875 21.341999053955078125 18.155000686645507812 16.16699981689453125 16.2089996337890625 16.600999832153320312 16.54000091552734375 16.704999923706054688 16.909999847412109375 17.120000839233398438 17.08499908447265625 17.27899932861328125 17.511999130249023438 17.590999603271484375 17.812000274658203125 18.830999374389648438 23.968000411987304688 24.819000244140625 24.895000457763671875 24.787000656127929688 24.5410003662109375 51.287998199462890625 78.035003662109375 78.0540008544921875 78.04599761962890625 78.029998779296875 78.04000091552734375
 99.60700225830078125 99.50099945068359375 99.4069976806640625 99.302001953125 99.141998291015625 99.01000213623046875 98.94899749755859375 98.7969970703125 98.6439971923828125 98.49199676513671875 98.339996337890625 98.1880035400390625 44.37799835205078125 26.155000686645507812 25.947000503540039062 25.879999160766601562 25.688999176025390625 25.479000091552734375 25.462999343872070312 64.73400115966796875 64.6959991455078125 64.660003662109375 64.625 64.589996337890625 64.55500030517578125 64.51999664306640625 64.48699951171875 60.423000335693359375 56.35900115966796875 56.22100067138671875 56.148998260498046875 56.16899871826171875 55.979999542236328125 55.85900115966796875 55.85900115966796875 24.052999496459960938 23.677000045776367188 23.65200042724609375 23.68199920654296875 23.747999191284179688 23.919000625610351562 23.08499908447265625 21.579000473022460938 19.617000579833984375 16.368999481201171875 16.1959991455078125 16.381000518798828125 16.667999267578125 16.68000030517578125 16.91500091552734375 17.143999099731445312 17.142999649047851562 17.33499908447265625 17.565999984741210938 17.683000564575195312 17.775999069213867188 18.906000137329101562 22.393999099731445312 25.246999740600585938 25.270999908447265625 25.100000381469726562 24.830999374389648438 78.4850006103515625 78.34400177001953125 78.2779998779296875 78.25499725341796875 38.13700103759765625 78.3769989013671875
